# .PCD v0.7 - Point Cloud Data file format
VERSION 0.7
FIELDS x y z rgba
SIZE 4 4 4 4
TYPE F F F U
COUNT 1 1 1 1
WIDTH 1121
HEIGHT 1
VIEWPOINT 0 0 0 1 0 0 0
POINTS 1121
DATA ascii
-4.2051177 -1.1673863 -0.11098824 6118749
-4.2051287 -1.1639098 -0.11098853 6184542
-4.2051396 -1.1604332 -0.11098884 6184542
-4.2051511 -1.1569568 -0.11098914 6184542
-4.205162 -1.1534803 -0.11098942 6118749
-4.2051735 -1.1500037 -0.1109897 5987163
-4.2051845 -1.1465272 -0.11099002 6052956
-4.2051954 -1.1430506 -0.1109903 6184542
-4.2052064 -1.1395739 -0.11099058 6184542
-4.2052178 -1.1360974 -0.11099091 6184542
-4.2052288 -1.1326208 -0.11099119 6250335
-4.2052398 -1.1291441 -0.11099148 6316128
-4.2052512 -1.1256676 -0.11099179 6250335
-4.2052622 -1.1221908 -0.11099207 6184542
-4.2052736 -1.1187141 -0.11099236 6184542
-3.6102479 -0.95743424 -0.095287502 4410461
-3.6080346 -0.95386183 -0.095229074 4410461
-3.6058242 -0.95029378 -0.095170707 4410461
-3.6040897 -0.94685447 -0.09512493 4410461
-3.6026161 -0.94348627 -0.095086053 4410461
-3.6012816 -0.94015688 -0.095050842 4410461
-3.5998962 -0.93681651 -0.095014274 4410461
-3.5982959 -0.93342263 -0.094972029 4410461
-3.5969105 -0.93008697 -0.094935462 4410461
-3.5956595 -0.92678821 -0.094902441 4410461
-3.5927286 -0.92305994 -0.094825104 4410461
-3.5904717 -0.91950917 -0.094765514 4410461
-3.588557 -0.91604942 -0.094714984 4410461
-3.5863972 -0.91253054 -0.094657972 4410461
-3.5831711 -0.90874475 -0.094572812 4410461
-3.5799513 -0.90496594 -0.094487831 4410461
-3.5767365 -0.90119374 -0.094403014 4410461
-3.5748057 -0.89774925 -0.094352052 4410461
-3.5740895 -0.89461195 -0.094333142 4410461
-3.5736706 -0.89155 -0.094322085 4410461
-3.5732515 -0.88848877 -0.094311029 4410461
-3.5728326 -0.88542825 -0.094299942 4410461
-3.5718541 -0.88223028 -0.094274148 4410461
-3.5708015 -0.87901556 -0.094246343 4410461
-3.570061 -0.87587923 -0.094226807 4410461
-3.5698264 -0.87286782 -0.094220608 4410461
-3.5696306 -0.86986625 -0.094215453 4410461
-3.5697355 -0.86693799 -0.094218209 4410461
-3.5698402 -0.8640095 -0.094220981 4410461
-3.5699449 -0.86108088 -0.094223738 4410461
-3.570049 -0.85815197 -0.09422648 4410461
-3.5701537 -0.85522306 -0.094229266 4410461
-3.5702584 -0.85229385 -0.094232023 4410461
-3.570401 -0.84937352 -0.094235778 4410461
-3.5708818 -0.84653324 -0.094248489 4410461
-3.5713887 -0.8436982 -0.09426184 4410461
-3.5718954 -0.84086233 -0.094275236 4410461
-3.5724027 -0.83802569 -0.094288617 4410461
-3.5728993 -0.83518583 -0.09430173 4410461
-3.5731113 -0.83227885 -0.094307318 4410461
-3.5733654 -0.82938123 -0.094314039 4410461
-3.5736883 -0.8264991 -0.094322562 4410461
-3.5740111 -0.82361645 -0.094331071 4410461
-3.5743344 -0.82073325 -0.094339594 4410461
-3.5746572 -0.81784958 -0.094348118 4410461
-3.5749805 -0.81496543 -0.094356641 4410461
-3.5753036 -0.81208062 -0.09436518 4410461
-3.5756266 -0.8091954 -0.094373703 4410461
-3.5759721 -0.80631459 -0.094382823 4410461
-3.5764551 -0.80346411 -0.094395578 4410461
-3.5770051 -0.80062795 -0.094410092 4410461
-3.5775945 -0.79779953 -0.094425634 4410461
-3.5781837 -0.79497015 -0.09444119 4410461
-3.5787735 -0.79213989 -0.094456777 4410461
-3.5793629 -0.78930861 -0.094472304 4410461
-3.5799527 -0.78647643 -0.094487876 4410461
-3.5805428 -0.78364336 -0.094503447 4410461
-3.5811334 -0.7808094 -0.094519049 4410461
-3.5817301 -0.77797574 -0.094534799 4410461
-3.5823269 -0.77514118 -0.09455055 4410461
-3.5828202 -0.77228332 -0.094563574 4410461
-3.5832999 -0.7694217 -0.094576225 4410461
-3.5837889 -0.76656127 -0.094589129 4410461
-3.5842788 -0.76370019 -0.094602063 4410461
-3.5847683 -0.76083827 -0.094614983 4410461
-3.5852582 -0.75797564 -0.094627932 4410461
-3.5857487 -0.75511229 -0.094640881 4410461
-3.5865028 -0.75230336 -0.094660759 4410461
-3.5873446 -0.74951166 -0.094682992 4410461
-3.5881865 -0.74671853 -0.094705209 4541791
-3.5885057 -0.74381554 -0.094713643 4673634
-3.5885041 -0.74084592 -0.094713584 4805220
-3.5885026 -0.7378763 -0.094713554 4936807
-3.588501 -0.73490661 -0.094713494 5002857
-3.5885623 -0.73194981 -0.094715118 5134444
-3.5886796 -0.72900426 -0.094718233 5331823
-3.5887971 -0.7260586 -0.094721302 5463410
-3.5889273 -0.72311527 -0.094724745 5594997
-3.5893271 -0.72022581 -0.094735309 5529461
-3.589587 -0.71730775 -0.094742179 5266031
-3.5898471 -0.71438926 -0.094749033 5002600
-3.5902317 -0.71149504 -0.094759166 4739428
-3.5909791 -0.70867187 -0.094778925 4607841
-3.5918455 -0.70587075 -0.094801784 4542048
-3.5927124 -0.70306832 -0.094824642 4476254
-3.5935595 -0.70026052 -0.094847009 4410461
-3.594321 -0.69743478 -0.094867125 4410461
-3.5950823 -0.69460773 -0.094887212 4410461
-3.5960522 -0.69181961 -0.094912812 4410461
-3.5976727 -0.68915439 -0.094955564 4410461
-3.5991247 -0.68645442 -0.094993889 4410461
-3.6008475 -0.6838035 -0.095039383 4410461
-3.602298 -0.68109822 -0.095077664 4410461
-3.6036766 -0.67837697 -0.095114022 4410461
-3.6047184 -0.67559034 -0.095141545 4410461
-3.6056914 -0.67278922 -0.095167235 4410461
-3.6066651 -0.66998649 -0.095192924 4410461
-3.607795 -0.66721106 -0.095222741 4410461
-3.6090715 -0.66446084 -0.095256418 4410461
-3.610491 -0.6617347 -0.095293909 4410461
-3.6119828 -0.65901935 -0.095333278 4410461
-3.6139226 -0.65638292 -0.095384464 4410461
-3.6158371 -0.65373868 -0.095435008 4410461
-3.6177452 -0.65109015 -0.095485359 4410461
-3.6192398 -0.64836437 -0.095524818 4410461
-3.6231515 -0.64606714 -0.095628068 4410461
-3.6229484 -0.64303315 -0.095622703 4410461
-3.6224575 -0.63994861 -0.095609739 4410461
-3.622261 -0.63691664 -0.095604569 4475997
-3.6212642 -0.63374496 -0.095578253 5068650
-3.6203451 -0.63058841 -0.095553979 5331823
-3.6195791 -0.62745988 -0.095533773 5331824
-3.618892 -0.62434638 -0.095515639 5726584
-3.6194587 -0.62144917 -0.095530584 4739428
-3.6206362 -0.61865544 -0.095561698 4410461
-3.6221156 -0.61591107 -0.095600724 4410461
-4.2065763 -0.71181309 -0.11102675 6250335
-4.2065873 -0.70833421 -0.11102703 6250335
-4.2065988 -0.70485538 -0.11102735 6184542
-4.2066097 -0.70137644 -0.11102763 6184542
-4.2066212 -0.69789749 -0.11102791 6118749
-4.2066321 -0.69441849 -0.11102819 6118749
-4.2066436 -0.69093961 -0.11102852 6184542
-4.2066541 -0.6874606 -0.11102881 6184542
-4.206665 -0.68398154 -0.11102909 6184542
-4.2066765 -0.68050259 -0.1110294 6052956
-4.2066875 -0.67702353 -0.11102968 6052956
-4.2066984 -0.67354447 -0.11102997 5921370
-4.2067099 -0.6700654 -0.11103028 5789784
-4.2067213 -0.66658628 -0.11103059 6184542
-4.2067323 -0.66310716 -0.11103088 6184542
-4.2067437 -0.65962809 -0.11103116 6184542
-4.2067547 -0.65614891 -0.11103144 6184542
-4.2067657 -0.65266973 -0.11103176 6052956
-4.2067761 -0.64919049 -0.11103204 5987163
-4.2067876 -0.64571136 -0.11103234 6118749
-4.2067986 -0.64223212 -0.11103262 6184542
-4.20681 -0.63875294 -0.11103293 6184542
-4.2068214 -0.63527364 -0.11103322 6184542
-4.2068324 -0.63179433 -0.1110335 6316128
-4.2068439 -0.62831509 -0.11103381 6316128
-4.2068548 -0.62483573 -0.11103411 6250335
-4.2068658 -0.62135637 -0.11103439 6184542
-4.2068772 -0.61787707 -0.11103468 6184542
-4.2068882 -0.6143977 -0.11103499 6118749
-4.2068996 -0.61091834 -0.11103527 6052956
-4.2069106 -0.60743892 -0.11103556 6052956
-4.2069216 -0.60395944 -0.11103585 6052956
-4.206933 -0.60048008 -0.11103618 6118749
-4.206944 -0.5970006 -0.11103646 6118749
-4.206955 -0.59352106 -0.11103675 6184542
-4.2069664 -0.59004164 -0.11103706 6250335
-4.2069774 -0.5865621 -0.11103734 6184542
-4.2069883 -0.5830825 -0.11103763 6052956
-4.2069998 -0.57960302 -0.11103792 6052956
-4.2070112 -0.57612342 -0.11103824 6052956
-4.2070222 -0.57264382 -0.11103852 6118749
-4.2070332 -0.56916416 -0.1110388 6118749
-4.2070441 -0.56568462 -0.11103909 5987163
-4.2070551 -0.5622049 -0.11103937 5921370
-4.2070661 -0.55872524 -0.1110397 6052956
-4.2070775 -0.55524558 -0.11103998 6184542
-4.2070885 -0.55176586 -0.11104026 6184542
-4.2070994 -0.54828614 -0.11104055 6184542
-4.2071114 -0.54480642 -0.11104086 6184542
-4.2071223 -0.54132664 -0.11104114 6052956
-4.2071333 -0.53784686 -0.11104143 5987163
-4.2071443 -0.53436702 -0.11104172 5987163
-4.2071557 -0.53088725 -0.11104204 6316128
-4.2071667 -0.52740741 -0.11104232 6316128
-4.2071776 -0.52392763 -0.11104265 6250335
-4.2071886 -0.52044773 -0.11104293 6184542
-4.2072001 -0.51696783 -0.11104321 6118749
-4.2072115 -0.51348794 -0.11104351 6250335
-4.2072225 -0.51000798 -0.1110438 6250335
-4.2072339 -0.50652808 -0.11104411 6184542
-4.2072449 -0.50304812 -0.11104439 6052956
-4.2072558 -0.49956813 -0.11104468 6052956
-4.2072673 -0.49608818 -0.11104499 5921370
-4.2072783 -0.49260813 -0.11104529 5987163
-4.2072892 -0.48912808 -0.11104557 5987163
-4.2073011 -0.48564807 -0.11104588 6250335
-4.2073116 -0.48216796 -0.11104617 6316128
-4.2073226 -0.47868785 -0.11104645 6316128
-4.207334 -0.47520778 -0.11104673 6250335
-4.207345 -0.47172764 -0.11104701 6250335
-4.207356 -0.46824747 -0.11104734 6184542
-4.2073674 -0.46476737 -0.11104764 6184542
-4.2073784 -0.46128717 -0.11104792 6184542
-4.2073894 -0.45780694 -0.11104821 6250335
-4.2074008 -0.45432669 -0.11104852 6184542
-4.2074122 -0.45084649 -0.1110488 6184542
-4.2074232 -0.44736624 -0.1110491 6184542
-4.2074342 -0.44388592 -0.11104938 6184542
-4.2074451 -0.44040567 -0.1110497 6184542
-4.2074561 -0.43692535 -0.11104998 6184542
-4.2074671 -0.43344501 -0.11105026 6184542
-4.2074785 -0.42996469 -0.11105058 6184542
-4.20749 -0.42648432 -0.11105087 6184542
-4.2075009 -0.42300391 -0.11105116 6052956
-4.2075124 -0.41952354 -0.11105144 6118749
-4.2075233 -0.4160431 -0.11105175 6250335
-4.2075348 -0.4125627 -0.11105204 6118749
-4.2075458 -0.4090822 -0.11105232 6052956
-4.2075567 -0.40560171 -0.1110526 6052956
-4.2075682 -0.40212125 -0.11105293 6052956
-4.2075787 -0.39864072 -0.11105321 6052956
-4.2075906 -0.39516023 -0.11105351 6052956
-4.2076015 -0.39167967 -0.11105382 6052956
-4.2076125 -0.38819909 -0.11105411 6052956
-4.207624 -0.38471851 -0.11105439 5987163
-4.207634 -0.3812378 -0.11105467 6118749
-4.2076449 -0.37775716 -0.11105496 6052956
-4.2076564 -0.37427655 -0.11105525 5987163
-4.2076674 -0.37079588 -0.11105557 6052956
-4.2076783 -0.3673152 -0.11105585 6052956
-4.2076902 -0.36383453 -0.11105613 6118749
-4.2077012 -0.3603538 -0.11105642 6118749
-4.2077117 -0.35687304 -0.11105672 6118749
-4.2077231 -0.35339233 -0.11105703 6118749
-4.2077341 -0.34991154 -0.11105731 6052956
-4.2077451 -0.34643075 -0.11105759 6052956
-4.2077565 -0.34294996 -0.11105791 6118749
-4.2077675 -0.33946911 -0.11105819 6118749
-4.2077794 -0.33598828 -0.11105849 6118749
-4.2077904 -0.33250743 -0.1110588 6052956
-4.2078013 -0.32902652 -0.11105908 6052956
-4.2078128 -0.32554564 -0.11105937 6052956
-4.2078238 -0.32206473 -0.11105965 6052956
-4.2078352 -0.31858382 -0.11105998 6118749
-4.2078457 -0.31510285 -0.11106028 6052956
-4.2078567 -0.31162184 -0.11106056 6052956
-4.2078681 -0.30814087 -0.11106087 6118749
-4.2078795 -0.30465987 -0.11106116 6118749
-4.2078905 -0.30117881 -0.11106144 6118749
-4.207902 -0.29769778 -0.11106172 6118749
-4.2079129 -0.29421672 -0.11106203 6118749
-4.2079239 -0.29073563 -0.11106233 6118749
-4.2079353 -0.28725454 -0.11106262 6118749
-4.2079463 -0.28377339 -0.1110629 6118749
-4.2079573 -0.28029224 -0.11106318 6052956
-4.2079682 -0.27681109 -0.1110635 6118749
-4.2079797 -0.27332994 -0.11106378 6118749
-4.2079906 -0.26984873 -0.11106408 6184542
-4.2080016 -0.2663675 -0.11106436 6118749
-4.2080131 -0.26288629 -0.11106467 6118749
-4.208024 -0.25940502 -0.11106496 6184542
-4.2080355 -0.25592378 -0.11106527 6118749
-4.2080464 -0.25244248 -0.11106555 6052956
-4.2080574 -0.24896117 -0.11106583 5987163
-4.2080693 -0.24547985 -0.11106615 6052956
-4.2080803 -0.24199851 -0.11106643 6052956
-4.2080917 -0.23851717 -0.11106674 6118749
-4.2081027 -0.23503578 -0.11106703 6118749
-4.2081132 -0.23155437 -0.11106731 6118749
-4.2081246 -0.22807297 -0.11106762 6052956
-4.2081356 -0.22459152 -0.11106792 6052956
-4.2081466 -0.22111006 -0.1110682 6052956
-4.208158 -0.21762861 -0.11106852 6118749
-4.2081695 -0.21414711 -0.1110688 6118749
-4.2081809 -0.21066561 -0.11106908 6118749
-4.2081919 -0.20718408 -0.11106937 6052956
-4.2082033 -0.20370255 -0.11106969 6052956
-4.2082143 -0.20022097 -0.11106998 6052956
-4.2082253 -0.19673939 -0.11107026 6052956
-4.2082367 -0.19325779 -0.11107057 6118749
-4.2082472 -0.18977617 -0.11107086 6052956
-4.2082582 -0.18629453 -0.11107114 6052956
-4.2082701 -0.18281288 -0.11107144 6118749
-4.208281 -0.1793312 -0.11107177 6118749
-4.208292 -0.1758495 -0.11107205 6118749
-4.208303 -0.17236778 -0.11107233 6118749
-4.2083144 -0.16888607 -0.11107261 6118749
-4.2083254 -0.1654043 -0.11107293 6118749
-4.2083364 -0.16192253 -0.11107321 6118749
-4.2083478 -0.15844077 -0.11107351 6118749
-4.2083592 -0.15495895 -0.11107379 6052956
-4.2039733 -1.7096096 -0.10748439 6184542
-4.2039847 -1.7061357 -0.10748468 6184542
-4.2039957 -1.7026619 -0.10748498 6118749
-4.2040067 -1.6991879 -0.10748526 6118749
-4.2040176 -1.6957141 -0.10748553 6052956
-4.2040286 -1.6922402 -0.1074858 6184542
-4.2040396 -1.6887662 -0.10748611 6184542
-4.204051 -1.6852924 -0.1074864 6184542
-4.204062 -1.6818184 -0.10748668 6184542
-4.2040734 -1.6783444 -0.10748695 6118749
-4.2040849 -1.6748705 -0.10748726 6052956
-4.2040958 -1.6713964 -0.10748753 5789784
-4.2041068 -1.6679223 -0.1074878 6052956
-4.2041183 -1.6644484 -0.10748813 6184542
-4.2041292 -1.6609743 -0.10748839 6184542
-4.2041402 -1.6575001 -0.10748868 6052956
-4.2041507 -1.6540259 -0.10748895 5987163
-4.2041621 -1.6505519 -0.10748926 5921370
-4.2041736 -1.6470777 -0.10748953 6052956
-4.2041845 -1.6436034 -0.10748981 6184542
-4.204196 -1.6401294 -0.10749009 6184542
-4.2042069 -1.6366552 -0.10749036 6184542
-4.2042179 -1.6331809 -0.10749067 6184542
-4.2042294 -1.6297067 -0.10749094 6250335
-4.2042403 -1.6262325 -0.10749123 6184542
-4.2042513 -1.6227582 -0.10749149 6184542
-4.2042623 -1.6192838 -0.10749181 6184542
-4.2042742 -1.6158096 -0.10749209 6118749
-4.2042847 -1.6123352 -0.10749236 6052956
-4.2042956 -1.6088609 -0.10749264 6052956
-4.2043071 -1.6053866 -0.10749294 6118749
-4.204318 -1.6019121 -0.10749322 6118749
-4.204329 -1.5984377 -0.1074935 6118749
-4.20434 -1.5949632 -0.10749377 6184542
-4.2043514 -1.5914888 -0.10749409 6184542
-4.2043629 -1.5880144 -0.10749435 6184542
-4.2043738 -1.5845398 -0.10749464 6052956
-4.2043853 -1.5810654 -0.10749494 5987163
-4.2043962 -1.5775909 -0.10749523 6052956
-4.2044072 -1.5741163 -0.1074955 6118749
-4.2044182 -1.5706419 -0.10749578 6052956
-4.2044291 -1.5671673 -0.10749605 5921370
-4.2044401 -1.5636926 -0.10749635 5921370
-4.2044511 -1.560218 -0.10749663 6052956
-4.204463 -1.5567434 -0.1074969 6184542
-4.204474 -1.5532688 -0.1074972 6250335
-4.2044849 -1.549794 -0.1074975 6118749
-4.2044964 -1.5463195 -0.10749778 6118749
-4.2045074 -1.5428447 -0.10749805 6052956
-4.2045183 -1.5393699 -0.10749832 6052956
-4.2045298 -1.5358953 -0.10749863 6052956
-4.2045407 -1.5324205 -0.10749891 6184542
-4.2045517 -1.5289457 -0.1074992 6316128
-4.2045631 -1.525471 -0.1074995 6250335
-4.2045741 -1.5219961 -0.10749978 6184542
-4.2045851 -1.5185213 -0.10750005 6118749
-4.204596 -1.5150464 -0.10750031 6184542
-4.2046075 -1.5115716 -0.10750064 6250335
-4.2046185 -1.5080967 -0.10750091 6184542
-4.2046294 -1.5046217 -0.10750119 6052956
-4.2046409 -1.5011469 -0.10750146 5987163
-4.2046523 -1.497672 -0.10750178 5921370
-4.2046633 -1.4941969 -0.10750204 5987163
-4.2046747 -1.4907221 -0.10750231 6052956
-4.2046852 -1.487247 -0.10750261 6250335
-4.2046962 -1.4837719 -0.10750288 6316128
-4.2047076 -1.4802971 -0.10750319 6316128
-4.2047186 -1.4768219 -0.10750346 6250335
-4.2047296 -1.4733468 -0.10750373 6250335
-4.204741 -1.4698716 -0.10750401 6250335
-4.2047524 -1.4663967 -0.10750432 6184542
-4.2047634 -1.4629215 -0.10750461 6184542
-4.2047744 -1.4594463 -0.10750487 6184542
-4.2047858 -1.4559712 -0.10750519 6184542
-4.2047968 -1.4524961 -0.10750546 6184542
-4.2048078 -1.4490207 -0.10750572 6184542
-4.2048187 -1.4455457 -0.10750602 6184542
-4.2048297 -1.4420704 -0.10750632 6118749
-4.2048411 -1.4385951 -0.1075066 6118749
-4.2048526 -1.43512 -0.10750687 6118749
-4.2048635 -1.4316446 -0.10750715 6118749
-4.2048745 -1.4281693 -0.10750745 6118749
-4.2048855 -1.4246938 -0.10750772 6118749
-4.2048969 -1.4212186 -0.10750802 6052956
-4.2049079 -1.4177432 -0.10750829 6250335
-4.2049189 -1.4142678 -0.1075086 6250335
-4.2049308 -1.4107925 -0.10750887 6184542
-4.2049417 -1.407317 -0.10750915 6118749
-4.2049522 -1.4038416 -0.10750942 6118749
-4.2049637 -1.4003662 -0.10750975 6118749
-4.2049747 -1.3968906 -0.10751002 6184542
-4.2049856 -1.3934152 -0.10751028 6184542
-4.2049971 -1.3899398 -0.1075106 6184542
-4.205008 -1.3864641 -0.10751086 6052956
-4.205019 -1.3829886 -0.10751115 6052956
-4.2050309 -1.3795131 -0.10751143 6250335
-4.2050419 -1.3760375 -0.10751174 6184542
-4.2050529 -1.3725618 -0.10751201 6118749
-4.2050638 -1.3690861 -0.10751228 6118749
-4.2050748 -1.3656106 -0.10751256 6118749
-4.2050858 -1.3621349 -0.10751283 6118749
-4.2050967 -1.3586593 -0.10751314 6250335
-4.2051082 -1.3551836 -0.10751343 6250335
-4.2051191 -1.3517078 -0.10751371 6184542
-4.2051306 -1.348232 -0.10751398 6184542
-4.205142 -1.3447565 -0.10751428 6118749
-4.205153 -1.3412806 -0.10751456 6052956
-4.205164 -1.3378048 -0.10751483 6118749
-4.2051749 -1.3343289 -0.10751513 6184542
-4.2051864 -1.3308532 -0.10751542 6184542
-4.2051973 -1.3273773 -0.10751571 6052956
-4.2052078 -1.3239014 -0.10751598 6184542
-4.2052197 -1.3204256 -0.10751627 6316128
-4.2052307 -1.3169497 -0.10751656 6250335
-4.2052417 -1.3134737 -0.10751684 6184542
-4.2052531 -1.3099979 -0.10751712 6184542
-4.2052641 -1.3065219 -0.10751742 6184542
-4.2052751 -1.3030459 -0.1075177 6052956
-4.2052865 -1.29957 -0.10751797 6052956
-4.2052975 -1.2960939 -0.10751824 6118749
-4.2053084 -1.2926179 -0.10751854 6316128
-4.2053199 -1.2891418 -0.10751884 6381921
-4.2053313 -1.2856659 -0.10751912 6250335
-4.2053418 -1.2821897 -0.10751939 6184542
-4.2053528 -1.2787136 -0.10751966 6052956
-4.2053642 -1.2752376 -0.10751997 5921370
-4.2053752 -1.2717614 -0.10752024 6316128
-4.2053862 -1.2682852 -0.10752054 6250335
-4.2053976 -1.2648091 -0.10752083 5987163
-4.205409 -1.2613329 -0.10752112 5855577
-4.20542 -1.2578566 -0.10752138 6184542
-4.205431 -1.2543803 -0.10752165 6118749
-4.2054424 -1.2509042 -0.10752197 6184542
-4.2054534 -1.2474279 -0.10752225 6118749
-4.2054644 -1.2439516 -0.10752253 6052956
-4.2054753 -1.2404753 -0.1075228 5987163
-4.2054863 -1.236999 -0.10752311 5921370
-4.2054973 -1.2335227 -0.10752338 6052956
-4.2055092 -1.2300464 -0.10752366 6184542
-4.2055202 -1.2265699 -0.10752395 6184542
-4.2055311 -1.2230935 -0.10752425 6184542
-4.2055426 -1.2196171 -0.10752453 6184542
-4.2055535 -1.2161407 -0.1075248 6250335
-4.2055645 -1.2126642 -0.10752508 6250335
-4.2055755 -1.2091877 -0.10752535 6184542
-4.2055869 -1.2057114 -0.10752566 6184542
-4.2055984 -1.2022347 -0.10752594 6118749
-4.2056088 -1.1987582 -0.10752621 6118749
-4.2056203 -1.1952817 -0.10752653 6052956
-4.2056313 -1.1918051 -0.10752679 6184542
-4.2056422 -1.1883285 -0.10752708 6184542
-4.2056537 -1.184852 -0.10752738 6184542
-4.2056646 -1.1813754 -0.10752767 6184542
-4.2056756 -1.1778986 -0.10752794 6118749
-4.2056866 -1.174422 -0.10752821 5987163
-4.2056985 -1.1709454 -0.10752849 5789784
-4.2057095 -1.1674687 -0.10752879 6118749
-4.2057204 -1.1639919 -0.10752907 6184542
-4.2057319 -1.1605153 -0.10752936 6118749
-4.2057424 -1.1570386 -0.10752964 6052956
-4.2057533 -1.1535617 -0.10752994 5987163
-4.2057648 -1.1500851 -0.10753021 5921370
-4.2057757 -1.1466082 -0.10753049 6052956
-4.2057867 -1.1431314 -0.10753076 6184542
-4.2057986 -1.1396546 -0.10753107 6184542
-4.2058096 -1.1361777 -0.10753135 6184542
-4.2058206 -1.1327008 -0.10753164 6184542
-4.205832 -1.1292239 -0.10753193 6250335
-4.205843 -1.1257471 -0.1075322 6184542
-4.2058539 -1.1222701 -0.10753249 6184542
-4.2058654 -1.1187932 -0.10753275 6118749
-4.2058759 -1.1153162 -0.10753308 6118749
-4.2058873 -1.1118392 -0.10753335 6052956
-4.2058988 -1.1083623 -0.10753363 6052956
-4.2059097 -1.1048852 -0.1075339 6118749
-3.6102173 -0.94541079 -0.092303634 6184542
-3.6087902 -0.94205111 -0.092267171 4410461
-3.6077125 -0.93878478 -0.092239603 4410461
-3.6064928 -0.9354834 -0.092208415 4410461
-3.6053929 -0.93221498 -0.092180297 4410461
-3.6056886 -0.92930812 -0.092187837 4410461
-3.6052358 -0.9262085 -0.092176288 4410461
-3.6031432 -0.92268974 -0.092122793 4410461
-3.5999444 -0.91889197 -0.092040986 4410461
-3.5965476 -0.91504908 -0.091954142 4410461
-3.5921116 -0.9109484 -0.091840744 4410461
-3.5893116 -0.90726858 -0.091769159 4410461
-3.5865157 -0.90359437 -0.091697663 4410461
-3.5837245 -0.89992601 -0.091626301 4410461
-3.5809374 -0.89626324 -0.091555044 4410461
-3.5802131 -0.89311969 -0.091536522 4410461
-3.5764897 -0.88923168 -0.091441318 4410461
-3.5760696 -0.88616842 -0.09143059 4410461
-3.5756505 -0.88310605 -0.091419861 4410461
-3.5752306 -0.88004422 -0.091409132 4410461
-3.5743413 -0.87686801 -0.091386408 4410461
-3.5732875 -0.87365294 -0.091359437 4410461
-3.5722342 -0.87043971 -0.091332525 4410461
-3.5715919 -0.86732805 -0.091316089 4410461
-3.5715685 -0.86436731 -0.091315478 4410461
-3.5716438 -0.86143035 -0.09131743 4410461
-3.5717192 -0.85849333 -0.091319367 4410461
-3.5717945 -0.85555613 -0.09132129 4410461
-3.5718696 -0.85261875 -0.091323197 4410461
-3.5720179 -0.84969872 -0.091326997 4410461
-3.5723844 -0.84683007 -0.091336355 4410461
-3.5727348 -0.84395713 -0.091345325 4410461
-3.5730054 -0.84106481 -0.091352254 4410461
-3.573276 -0.83817196 -0.091359168 4410461
-3.5735471 -0.83527875 -0.091366082 4410461
-3.5739081 -0.8324061 -0.091375321 4410461
-3.5742595 -0.82953066 -0.091384321 4410461
-3.5745826 -0.826648 -0.091392562 4410461
-3.5749216 -0.8237685 -0.091401234 4410461
-3.5752733 -0.82089144 -0.091410235 4410461
-3.5756252 -0.81801379 -0.091419235 4410461
-3.5759773 -0.81513554 -0.091428235 4410461
-3.576329 -0.81225669 -0.091437221 4410461
-3.5766814 -0.80937737 -0.091446206 4410461
-3.5770335 -0.80649745 -0.091455221 4410461
-3.5773857 -0.803617 -0.091464221 4410461
-3.5778041 -0.80075067 -0.091474935 4410461
-3.5782428 -0.79788822 -0.091486126 4410461
-3.5786812 -0.79502499 -0.091497347 4410461
-3.579154 -0.79216868 -0.091509447 4410461
-3.5797503 -0.78933877 -0.091524675 4410461
-3.5803463 -0.78650779 -0.091539904 4410461
-3.5809426 -0.78367597 -0.091555178 4410461
-3.5815394 -0.7808432 -0.091570422 4410461
-3.5821359 -0.77800941 -0.091585696 4410461
-3.5827332 -0.7751748 -0.09160094 4410461
-3.5832386 -0.77231938 -0.091613859 4410461
-3.5837333 -0.76946086 -0.09162651 4410461
-3.5842044 -0.76659644 -0.09163855 4410461
-3.5845916 -0.76371336 -0.091648459 4410461
-3.5849786 -0.76082963 -0.091658354 4410461
-3.5854492 -0.75796294 -0.091670379 4410461
-3.5859206 -0.7550956 -0.091682449 4410461
-3.5863919 -0.75222749 -0.091694504 4410461
-3.5868635 -0.74935865 -0.091706529 4410461
-3.5873353 -0.74648905 -0.091718599 4410461
-3.5873575 -0.74352551 -0.09171918 4410461
-3.5873556 -0.7405569 -0.091719121 4410461
-3.5874727 -0.73761284 -0.091722131 4541791
-3.5875897 -0.73466855 -0.091725111 4673634
-3.5877068 -0.73172408 -0.091728121 4805221
-3.5878243 -0.72877949 -0.091731101 4937064
-3.5879419 -0.72583473 -0.091734126 5068651
-3.5881438 -0.72290677 -0.091739282 5200237
-3.5885959 -0.72002864 -0.09175086 5266031
-3.5889912 -0.71713847 -0.091760963 5266030
-3.589251 -0.71422064 -0.091767594 4937064
-3.5894794 -0.7112962 -0.091773435 4739427
-3.5896494 -0.70835978 -0.091777787 4607841
-3.5905406 -0.70556486 -0.091800556 4410461
-3.5914688 -0.70277566 -0.091824308 4410461
-3.5923977 -0.69998509 -0.091848046 4410461
-3.5932813 -0.69718421 -0.091870651 4410461
-3.5942824 -0.69440454 -0.091896251 4410461
-3.5953338 -0.69163293 -0.091923103 4410461
-3.5963857 -0.68885964 -0.091950029 4410461
-3.5978661 -0.68616635 -0.091987848 4410461
-3.6005492 -0.68369895 -0.092056438 4410461
-3.6024218 -0.6810739 -0.092104346 4410461
-3.6037838 -0.67834967 -0.092139155 4410461
-3.6049087 -0.67557871 -0.092167914 4410461
-3.606209 -0.67283863 -0.092201158 4410461
-3.6074617 -0.67008752 -0.092233181 4410461
-3.608712 -0.66733396 -0.092265144 4410461
-3.6099224 -0.66457093 -0.092296094 4410461
-3.6111336 -0.66180611 -0.092327073 4410461
-3.6125188 -0.65907097 -0.092362508 4410461
-3.6143177 -0.65640873 -0.092408463 4410461
-3.6165776 -0.65382677 -0.092466265 4410461
-3.6191583 -0.65129882 -0.092532247 4410461
-3.6211667 -0.64866412 -0.092583582 4410461
-3.6253963 -0.64642215 -0.092691734 4410461
-3.6252623 -0.64339876 -0.092688307 4410461
-3.6248391 -0.64032447 -0.092677489 4410461
-3.6243074 -0.63723183 -0.092663899 4410461
-3.6227262 -0.63395637 -0.092623457 4410461
-3.6211457 -0.63068366 -0.09258306 4410461
-3.6201518 -0.62751526 -0.092557654 4410461
-3.6194072 -0.6243915 -0.09253861 5792633
-3.6190667 -0.62133837 -0.092529893 4410461
-3.6193359 -0.61838996 -0.092536792 4410461
-3.6208663 -0.61565554 -0.092575923 4410461
-3.6227436 -0.61297727 -0.092623889 4410461
-3.6246901 -0.61030757 -0.092673674 4410461
-4.207191 -0.70490521 -0.10756668 6118749
-4.207202 -0.70142603 -0.10756695 6118749
-4.2072124 -0.69794685 -0.10756724 6118749
-4.2072239 -0.6944676 -0.10756752 6052956
-4.2072353 -0.69098848 -0.10756779 6184542
-4.2072463 -0.68750918 -0.1075681 6184542
-4.2072573 -0.68402994 -0.10756837 6184542
-4.2072687 -0.68055069 -0.10756865 6184542
-4.2072797 -0.67707139 -0.10756893 6118749
-4.2072906 -0.67359209 -0.10756923 5921370
-4.2073021 -0.67011279 -0.10756952 5789784
-4.2073135 -0.66663343 -0.10756978 6184542
-4.207325 -0.66315413 -0.1075701 6184542
-4.2073359 -0.65967476 -0.10757037 6118749
-4.2073464 -0.65619534 -0.10757066 6052956
-4.2073579 -0.65271592 -0.10757096 5987163
-4.2073689 -0.6492365 -0.10757124 5921370
-4.2073798 -0.64575702 -0.10757151 6052956
-4.2073913 -0.6422776 -0.10757178 6184542
-4.2074022 -0.63879806 -0.10757206 6184542
-4.2074142 -0.63531864 -0.10757238 6184542
-4.2074251 -0.6318391 -0.10757266 6250335
-4.2074361 -0.6283595 -0.10757293 6250335
-4.2074475 -0.62488002 -0.10757324 6184542
-4.2074585 -0.62140042 -0.10757351 6184542
-4.2074695 -0.61792076 -0.10757378 6118749
-4.20748 -0.61444116 -0.10757406 6118749
-4.2074914 -0.61096156 -0.10757437 6052956
-4.2075028 -0.6074819 -0.10757466 6052956
-4.2075138 -0.60400218 -0.10757492 6184542
-4.2075253 -0.60052252 -0.10757521 6118749
-4.2075362 -0.5970428 -0.10757551 6118749
-4.2075472 -0.59356302 -0.10757577 6184542
-4.2075586 -0.59008336 -0.10757607 6184542
-4.2075696 -0.58660358 -0.10757634 6118749
-4.2075806 -0.58312374 -0.10757665 5987163
-4.207592 -0.57964402 -0.10757692 6052956
-4.2076035 -0.57616419 -0.1075772 6052956
-4.2076139 -0.57268429 -0.10757747 6118749
-4.2076254 -0.56920451 -0.10757779 6052956
-4.2076364 -0.56572461 -0.10757807 5921370
-4.2076473 -0.56224465 -0.10757834 5921370
-4.2076588 -0.55876482 -0.10757865 6118749
-4.2076697 -0.55528486 -0.10757892 6250335
-4.2076807 -0.5518049 -0.1075792 6184542
-4.2076926 -0.54832494 -0.10757947 6052956
-4.2077036 -0.54484493 -0.10757978 6118749
-4.207715 -0.54136497 -0.10758007 6052956
-4.207726 -0.53788495 -0.10758033 6052956
-4.2077365 -0.53440487 -0.10758062 6118749
-4.2077479 -0.53092486 -0.10758092 6316128
-4.2077589 -0.52744478 -0.1075812 6316128
-4.2077699 -0.52396464 -0.10758148 6250335
-4.2077813 -0.52048457 -0.10758179 6184542
-4.2077928 -0.51700443 -0.10758206 6118749
-4.2078037 -0.51352423 -0.10758233 6250335
-4.2078152 -0.5100441 -0.10758261 6184542
-4.2078261 -0.5065639 -0.10758291 6118749
-4.2078371 -0.50308371 -0.10758321 6052956
-4.2078485 -0.49960351 -0.10758348 5921370
-4.2078595 -0.49612322 -0.10758376 5921370
-4.20787 -0.49264297 -0.10758406 6052956
-4.207881 -0.48916265 -0.10758433 6118749
-4.2078929 -0.4856824 -0.10758461 6316128
-4.2079039 -0.48220205 -0.10758488 6316128
-4.2079148 -0.47872171 -0.10758518 6316128
-4.2079263 -0.47524139 -0.10758547 6184542
-4.2079372 -0.47176099 -0.10758576 6250335
-4.2079482 -0.46828058 -0.10758603 6184542
-4.2079597 -0.46480021 -0.10758632 6184542
-4.2079706 -0.46131977 -0.10758661 6184542
-4.2079825 -0.45783937 -0.10758689 6184542
-4.2079935 -0.45435888 -0.1075872 6184542
-4.208004 -0.45087838 -0.10758747 6184542
-4.2080154 -0.44739792 -0.10758775 6184542
-4.2080264 -0.44391736 -0.10758802 6184542
-4.2080379 -0.44043687 -0.10758834 6118749
-4.2080488 -0.43695629 -0.10758862 6118749
-4.2080598 -0.4334757 -0.10758889 6118749
-4.2080712 -0.42999515 -0.1075892 6118749
-4.2080827 -0.42651451 -0.10758947 6118749
-4.2080936 -0.42303386 -0.10758975 6052956
-4.2081051 -0.41955325 -0.10759002 6184542
-4.2081161 -0.41607255 -0.10759033 6316128
-4.208127 -0.41259184 -0.10759062 6184542
-4.2081375 -0.40911114 -0.10759088 6184542
-4.208149 -0.40563044 -0.10759117 6118749
-4.2081599 -0.40214968 -0.10759144 6118749
-4.2081714 -0.39866892 -0.10759175 6118749
-4.2081828 -0.39518815 -0.10759202 6184542
-4.2081938 -0.39170736 -0.1075923 6184542
-4.2082047 -0.38822654 -0.10759258 6118749
-4.2082162 -0.38474572 -0.10759288 5921370
-4.2082267 -0.38126481 -0.10759316 6118749
-4.2082376 -0.37778392 -0.10759343 6052956
-4.2082491 -0.37430307 -0.10759372 5987163
-4.2082601 -0.37082213 -0.107594 6052956
-4.208271 -0.36734119 -0.1075943 6052956
-4.2082825 -0.36386028 -0.10759458 6118749
-4.2082934 -0.36037931 -0.10759485 6118749
-4.2083049 -0.35689837 -0.10759516 6118749
-4.2083158 -0.35341734 -0.10759543 6118749
-4.2083268 -0.34993631 -0.10759573 6052956
-4.2083383 -0.34645531 -0.10759602 6052956
-4.2083492 -0.34297425 -0.10759629 6118749
-4.2083611 -0.33949319 -0.10759658 6118749
-4.2083721 -0.3360121 -0.10759684 6118749
-4.2083831 -0.33253098 -0.10759716 6052956
-4.2083945 -0.32904986 -0.10759743 6052956
-4.208405 -0.32556871 -0.10759772 6052956
-4.208416 -0.32208753 -0.10759799 6052956
-4.2084274 -0.31860638 -0.1075983 6118749
-4.2084384 -0.31512514 -0.10759857 6052956
-4.2084494 -0.31164393 -0.10759884 6052956
-4.2084613 -0.30816269 -0.10759915 6118749
-4.2084723 -0.30468142 -0.10759944 6118749
-4.2084832 -0.30120015 -0.10759972 6118749
-4.2084947 -0.29771888 -0.10759999 6118749
-4.2085056 -0.29423755 -0.1076003 6118749
-4.2085166 -0.2907562 -0.10760057 6118749
-4.208528 -0.28727487 -0.10760084 6118749
-4.2085385 -0.28379351 -0.10760114 6052956
-4.20855 -0.28031209 -0.1076014 6052956
-4.2085614 -0.2768307 -0.10760172 6118749
-4.2085724 -0.27334929 -0.10760199 6118749
-4.2085834 -0.26986784 -0.10760227 6118749
-4.2085948 -0.26638639 -0.10760257 6118749
-4.2086058 -0.26290491 -0.10760283 6118749
-4.2086172 -0.25942343 -0.10760313 6184542
-4.2086282 -0.2559419 -0.10760343 6118749
-4.2086391 -0.25246036 -0.10760371 6052956
-4.2086511 -0.24897882 -0.10760398 5987163
-4.208662 -0.24549724 -0.10760427 6052956
-4.208673 -0.24201567 -0.10760456 6052956
-4.208684 -0.23853405 -0.10760486 6118749
-4.2086949 -0.23505242 -0.10760513 6118749
-4.2087059 -0.23157077 -0.1076054 6118749
-4.2087169 -0.22808909 -0.10760568 6052956
-4.2087278 -0.22460739 -0.10760598 6052956
-4.2087393 -0.22112572 -0.10760626 6052956
-4.2087512 -0.21764402 -0.10760657 6118749
-4.2087626 -0.21416229 -0.10760686 6118749
-4.2087736 -0.21068053 -0.10760713 6118749
-4.2087846 -0.20719875 -0.10760739 6052956
-4.208796 -0.20371696 -0.10760771 6052956
-4.2088065 -0.20023516 -0.10760798 6052956
-4.2088175 -0.19675331 -0.10760826 6052956
-4.2088289 -0.19327149 -0.10760857 6118749
-4.2088404 -0.18978961 -0.10760885 6052956
-4.2088513 -0.18630771 -0.10760912 6052956
-4.2088628 -0.18282582 -0.10760939 6118749
-4.2088737 -0.17934389 -0.1076097 6118749
-4.2088847 -0.17586195 -0.10760997 6118749
-4.2088962 -0.17238 -0.10761027 6118749
-4.2089071 -0.16889802 -0.10761054 6118749
-4.2089181 -0.16541602 -0.10761085 6118749
-4.2089295 -0.16193402 -0.10761112 6118749
-4.2089405 -0.15845197 -0.10761139 6052956
-4.208952 -0.15496995 -0.1076117 6052956
-4.204565 -1.7097305 -0.1040259 6184542
-4.2045755 -1.7062563 -0.10402617 6118749
-4.2045865 -1.7027822 -0.10402644 6052956
-4.2045975 -1.6993079 -0.10402668 6052956
-4.2046089 -1.6958339 -0.10402697 6052956
-4.2046204 -1.6923598 -0.10402727 6118749
-4.2046313 -1.6888856 -0.10402754 6250335
-4.2046428 -1.6854115 -0.10402781 6184542
-4.2046537 -1.6819372 -0.10402808 6250335
-4.2046647 -1.6784629 -0.10402837 6250335
-4.2046762 -1.6749887 -0.10402864 6118749
-4.2046871 -1.6715145 -0.10402891 5855577
-4.2046981 -1.6680402 -0.10402918 6052956
-4.2047095 -1.6645659 -0.10402948 6118749
-4.2047205 -1.6610916 -0.10402972 6052956
-4.2047315 -1.6576172 -0.10402998 5987163
-4.2047424 -1.6541427 -0.10403025 5921370
-4.2047539 -1.6506685 -0.10403058 5855577
-4.2047648 -1.647194 -0.10403085 5987163
-4.2047758 -1.6437197 -0.10403112 6184542
-4.2047873 -1.6402453 -0.10403141 6184542
-4.2047982 -1.6367708 -0.10403168 6184542
-4.2048097 -1.6332963 -0.10403195 6184542
-4.2048211 -1.6298219 -0.10403222 6184542
-4.2048321 -1.6263474 -0.10403249 6184542
-4.2048426 -1.6228728 -0.10403275 6184542
-4.2048535 -1.6193982 -0.10403302 6118749
-4.204865 -1.6159238 -0.10403329 6052956
-4.2048759 -1.6124492 -0.10403356 6052956
-4.2048869 -1.6089745 -0.10403386 6052956
-4.2048988 -1.6055 -0.10403416 6184542
-4.2049098 -1.6020253 -0.10403442 6184542
-4.2049208 -1.5985506 -0.10403469 6118749
-4.2049322 -1.5950761 -0.10403499 6118749
-4.2049432 -1.5916013 -0.10403526 6184542
-4.2049541 -1.5881265 -0.1040355 6118749
-4.2049651 -1.5846517 -0.10403576 5921370
-4.2049761 -1.5811771 -0.10403606 5921370
-4.204987 -1.5777023 -0.10403633 6052956
-4.2049985 -1.5742275 -0.1040366 6118749
-4.2050099 -1.5707529 -0.1040369 6052956
-4.2050209 -1.5672779 -0.10403717 5855577
-4.2050319 -1.5638031 -0.10403746 5921370
-4.2050433 -1.5603284 -0.10403773 6118749
-4.2050543 -1.5568534 -0.10403803 6316128
-4.2050653 -1.5533785 -0.10403827 6250335
-4.2050767 -1.5499036 -0.10403854 6052956
-4.2050881 -1.5464287 -0.1040388 6052956
-4.2050991 -1.5429537 -0.1040391 6052956
-4.2051096 -1.5394787 -0.10403937 6118749
-4.205121 -1.5360038 -0.10403964 6184542
-4.205132 -1.5325288 -0.10403991 6250335
-4.205143 -1.5290537 -0.10404018 6250335
-4.2051544 -1.5255787 -0.10404047 6184542
-4.2051654 -1.5221037 -0.10404074 6184542
-4.2051768 -1.5186285 -0.10404104 6184542
-4.2051883 -1.5151535 -0.10404131 6250335
-4.2051992 -1.5116783 -0.10404158 6250335
-4.2052102 -1.5082033 -0.10404184 6052956
-4.2052212 -1.504728 -0.10404211 5987163
-4.2052326 -1.501253 -0.10404241 5921370
-4.2052431 -1.4977777 -0.10404268 5855577
-4.2052541 -1.4943025 -0.10404295 6052956
-4.2052655 -1.4908273 -0.10404322 6184542
-4.205277 -1.487352 -0.10404351 6316128
-4.2052879 -1.4838767 -0.10404378 6316128
-4.2052994 -1.4804016 -0.10404405 6316128
-4.2053103 -1.4769262 -0.10404432 6184542
-4.2053213 -1.4734509 -0.10404462 6250335
-4.2053328 -1.4699757 -0.10404488 6250335
-4.2053437 -1.4665003 -0.10404515 6184542
-4.2053547 -1.4630249 -0.10404542 6250335
-4.2053661 -1.4595494 -0.10404569 6184542
-4.2053771 -1.4560741 -0.10404599 6184542
-4.2053881 -1.4525987 -0.10404626 6184542
-4.205399 -1.4491231 -0.10404652 6250335
-4.2054105 -1.4456478 -0.10404682 6184542
-4.2054214 -1.4421723 -0.10404706 6118749
-4.2054324 -1.4386967 -0.10404733 6118749
-4.2054439 -1.4352213 -0.10404766 6052956
-4.2054548 -1.4317458 -0.10404792 6052956
-4.2054663 -1.4282701 -0.10404819 6052956
-4.2054777 -1.4247947 -0.10404846 6118749
-4.2054887 -1.421319 -0.10404873 6052956
-4.2054996 -1.4178433 -0.10404903 6316128
-4.2055106 -1.4143679 -0.1040493 6316128
-4.2055216 -1.4108921 -0.10404956 6184542
-4.2055326 -1.4074165 -0.10404983 6184542
-4.205544 -1.4039409 -0.1040501 6184542
-4.2055554 -1.4004651 -0.10405037 6184542
-4.2055664 -1.3969893 -0.10405064 6250335
-4.2055779 -1.3935137 -0.10405093 6250335
-4.2055893 -1.3900381 -0.10405123 6184542
-4.2056003 -1.3865622 -0.1040515 6052956
-4.2056112 -1.3830864 -0.1040518 6052956
-4.2056227 -1.3796108 -0.10405207 6184542
-4.2056336 -1.3761349 -0.10405234 6118749
-4.2056441 -1.372659 -0.1040526 6052956
-4.2056556 -1.3691831 -0.10405287 6052956
-4.205667 -1.3657073 -0.10405314 6052956
-4.205678 -1.3622313 -0.10405341 6118749
-4.205689 -1.3587554 -0.10405368 6250335
-4.2057004 -1.3552794 -0.10405397 6250335
-4.2057114 -1.3518035 -0.10405424 6184542
-4.2057223 -1.3483275 -0.10405454 6184542
-4.2057338 -1.3448516 -0.10405484 6118749
-4.2057452 -1.3413755 -0.10405511 6052956
-4.2057562 -1.3378994 -0.10405537 6118749
-4.2057672 -1.3344233 -0.10405564 6250335
-4.2057781 -1.3309474 -0.10405588 6118749
-4.2057891 -1.3274713 -0.10405618 6184542
-4.2058001 -1.3239951 -0.10405645 6250335
-4.2058115 -1.3205191 -0.10405672 6250335
-4.2058225 -1.3170428 -0.10405698 6250335
-4.2058334 -1.3135667 -0.10405728 6250335
-4.2058454 -1.3100905 -0.10405755 6250335
-4.2058563 -1.3066144 -0.10405782 6184542
-4.2058673 -1.3031381 -0.10405812 6052956
-4.2058787 -1.299662 -0.10405841 6052956
-4.2058897 -1.2961856 -0.10405868 6118749
-4.2059007 -1.2927094 -0.10405892 6316128
-4.2059112 -1.289233 -0.10405919 6316128
-4.2059226 -1.2857568 -0.10405949 6184542
-4.205934 -1.2822804 -0.10405976 6184542
-4.205945 -1.2788041 -0.10406002 6052956
-4.2059565 -1.2753278 -0.10406032 5855577
-4.2059674 -1.2718513 -0.10406059 6316128
-4.2059784 -1.2683749 -0.10406086 6250335
-4.2059898 -1.2648985 -0.10406113 6052956
-4.2060008 -1.2614222 -0.10406142 5921370
-4.2060118 -1.2579457 -0.10406169 6184542
-4.2060237 -1.2544693 -0.10406196 6184542
-4.2060347 -1.2509927 -0.10406223 6118749
-4.2060452 -1.2475162 -0.1040625 6052956
-4.2060566 -1.2440397 -0.1040628 5987163
-4.2060676 -1.2405632 -0.10406306 5921370
-4.2060785 -1.2370865 -0.10406333 5987163
-4.20609 -1.23361 -0.10406363 6184542
-4.2061009 -1.2301334 -0.1040639 6250335
-4.2061119 -1.2266567 -0.10406417 6250335
-4.2061238 -1.2231802 -0.10406446 6250335
-4.2061348 -1.2197034 -0.1040647 6250335
-4.2061458 -1.2162267 -0.104065 6250335
-4.2061572 -1.2127501 -0.10406527 6250335
-4.2061677 -1.2092733 -0.10406554 6184542
-4.2061787 -1.2057966 -0.10406584 6118749
-4.2061901 -1.20232 -0.1040661 6052956
-4.2062011 -1.1988431 -0.10406637 6052956
-4.2062125 -1.1953663 -0.10406664 6052956
-4.206224 -1.1918896 -0.10406694 6184542
-4.2062349 -1.1884127 -0.10406721 6250335
-4.2062459 -1.1849358 -0.10406747 6184542
-4.2062573 -1.1814591 -0.10406774 6316128
-4.2062683 -1.1779821 -0.10406801 6184542
-4.2062793 -1.1745052 -0.10406831 6052956
-4.2062907 -1.1710284 -0.10406858 5855577
-4.2063012 -1.1675514 -0.10406888 6118749
-4.2063127 -1.1640744 -0.10406914 6118749
-4.2063241 -1.1605976 -0.10406941 6052956
-4.2063351 -1.1571205 -0.10406968 5987163
-4.206346 -1.1536435 -0.10406998 5921370
-4.2063575 -1.1501665 -0.10407025 5855577
-4.2063684 -1.1466894 -0.10407051 5987163
-4.2063794 -1.1432123 -0.10407075 6184542
-4.2063909 -1.1397353 -0.10407105 6184542
-4.2064023 -1.1362582 -0.10407132 6184542
-4.2064133 -1.132781 -0.10407159 6184542
-4.2064242 -1.1293038 -0.10407189 6184542
-4.2064352 -1.1258268 -0.10407218 6184542
-4.2064462 -1.1223496 -0.10407245 6184542
-4.2064571 -1.1188723 -0.10407272 6118749
-4.2064686 -1.1153952 -0.10407302 6052956
-4.2064795 -1.111918 -0.10407329 6052956
-4.2064905 -1.1084406 -0.10407352 6052956
-4.2065024 -1.1049635 -0.10407379 6184542
-4.2065134 -1.1014862 -0.10407409 6184542
-4.2065244 -1.0980089 -0.10407436 6118749
-4.2065353 -1.0945314 -0.10407463 6118749
-4.2065468 -1.0910542 -0.1040749 6184542
-4.2065578 -1.0875769 -0.10407519 6052956
-4.2065682 -1.0840994 -0.10407549 5921370
-4.2065797 -1.0806221 -0.10407576 5921370
-4.2065911 -1.0771446 -0.10407603 6052956
-4.2066021 -1.0736672 -0.1040763 6118749
-4.2066135 -1.0701898 -0.10407656 5987163
-3.6095684 -0.91531128 -0.089304969 4410461
-3.6080525 -0.91194183 -0.089267462 4410461
-3.6053166 -0.9082675 -0.089199781 4410461
-3.6036289 -0.90486085 -0.089158028 4410461
-3.5924382 -0.89907885 -0.088881165 4410461
-3.5896382 -0.89540821 -0.088811874 4410461
-3.5887764 -0.89222413 -0.088790551 4410461
-3.5882258 -0.88911855 -0.088776931 4410461
-3.5876751 -0.88601381 -0.088763312 4410461
-3.5871246 -0.88291013 -0.088749677 4410461
-3.5810981 -0.87846404 -0.088600606 4410461
-3.5776315 -0.8746537 -0.08851482 4410461
-3.5768318 -0.87149894 -0.088495031 4410461
-3.5760264 -0.86834413 -0.088475108 4410461
-3.5754161 -0.86523789 -0.088459998 4410461
-3.5748055 -0.86213255 -0.088444903 4410461
-3.5741956 -0.8590284 -0.088429824 4410461
-3.5735855 -0.8559252 -0.088414714 4410461
-3.5734758 -0.85294247 -0.088412002 4410461
-3.5736237 -0.85002112 -0.088415638 4410461
-3.5739901 -0.84715146 -0.088424712 4410461
-3.574357 -0.8442812 -0.088433802 4410461
-3.5747244 -0.84141046 -0.088442892 4410461
-3.5750706 -0.83853418 -0.08845146 4410461
-3.5753419 -0.83563977 -0.088458166 4410461
-3.5756128 -0.83274484 -0.088464871 4410461
-3.5758798 -0.82984853 -0.088471487 4410461
-3.5761416 -0.82695067 -0.088477954 4410461
-3.5763824 -0.82404751 -0.088483915 4410461
-3.5766027 -0.82113916 -0.088489354 4410461
-3.5768702 -0.8182413 -0.088496 4410461
-3.5772223 -0.81536227 -0.088504687 4410461
-3.5775745 -0.81248266 -0.088513404 4410461
-3.5779269 -0.80960256 -0.088522121 4410461
-3.5782795 -0.80672187 -0.088530853 4410461
-3.5786319 -0.80384058 -0.088539556 4410461
-3.5790606 -0.8009758 -0.088550165 4410461
-3.5794995 -0.79811257 -0.088561028 4410461
-3.5799384 -0.79524863 -0.088571891 4410461
-3.5803771 -0.79238391 -0.088582724 4410461
-3.5808163 -0.78951848 -0.088593617 4410461
-3.5812552 -0.78665239 -0.088604465 4410461
-3.5816944 -0.78378558 -0.088615343 4410461
-3.5821338 -0.78091806 -0.088626206 4410461
-3.5825727 -0.77804983 -0.088637069 4410461
-3.5831332 -0.77520704 -0.088650927 4410461
-3.5836277 -0.77234918 -0.088663146 4410461
-3.5841227 -0.7694906 -0.088675424 4410461
-3.5846174 -0.76663107 -0.088687643 4410461
-3.5851119 -0.76377076 -0.088699892 4410461
-3.5856071 -0.76090968 -0.088712141 4410461
-3.5859969 -0.75802559 -0.088721782 4410461
-3.5863843 -0.75514036 -0.088731363 4410461
-3.586772 -0.75225449 -0.08874096 4410461
-3.5871592 -0.74936795 -0.088750526 4410461
-3.5875993 -0.74649173 -0.088761419 4410461
-3.5875654 -0.74351656 -0.088760599 4410461
-3.5875316 -0.7405414 -0.08875975 4410461
-3.5874977 -0.73756635 -0.088758901 4410461
-3.5874572 -0.73458999 -0.088757902 4410461
-3.5874066 -0.73161161 -0.088756666 4410461
-3.5873556 -0.72863328 -0.088755414 4476255
-3.5873051 -0.72565508 -0.088754162 4739171
-3.587306 -0.72268736 -0.088754192 4871014
-3.5878096 -0.71982044 -0.088766634 4936807
-3.588264 -0.71694297 -0.08877787 4937064
-3.5886557 -0.71405214 -0.088787571 4936807
-3.588829 -0.71111751 -0.088791877 4805221
-3.588999 -0.70818186 -0.088796049 4673634
-3.5891693 -0.70524597 -0.088800266 4542047
-3.5899932 -0.70243776 -0.088820666 4410461
-3.5909212 -0.69964838 -0.088843629 4410461
-3.591825 -0.69685286 -0.088865981 4410461
-3.5927289 -0.6940558 -0.088888347 4410461
-3.5938747 -0.69130385 -0.088916689 4410461
-3.5950215 -0.68855011 -0.088945061 4410461
-3.5963049 -0.68582052 -0.08897683 4410461
-3.5988743 -0.6833331 -0.089040384 4410461
-3.6016095 -0.68087262 -0.089108065 4410461
-3.6041744 -0.67837566 -0.089171514 4410461
-3.6058266 -0.67570341 -0.089212388 4410461
-3.6072412 -0.67298406 -0.089247376 4410461
-3.6085954 -0.67025125 -0.089280918 4410461
-3.6099477 -0.66751575 -0.089314371 4410461
-3.6113982 -0.66479611 -0.089350253 4410461
-3.6132076 -0.66213983 -0.089395016 4410461
-3.6150186 -0.65948087 -0.089439824 4410461
-3.6170063 -0.65685099 -0.089489013 4410461
-3.6192472 -0.65426362 -0.089544445 4410461
-3.621995 -0.65176368 -0.089612424 4410461
-3.6239018 -0.64910865 -0.089659601 4410461
-3.6293118 -0.647075 -0.089793444 4410461
-4.2076497 -0.74670655 -0.10410219 6052956
-3.6317523 -0.64150077 -0.089853838 4410461
-3.6297545 -0.63814485 -0.089804426 4410461
-3.6274304 -0.63473517 -0.089746922 4410461
-3.6250923 -0.63132679 -0.089689046 4410461
-3.6232476 -0.62800795 -0.089643434 6056064
-3.6203597 -0.62451208 -0.089571968 5266030
-3.6194303 -0.62135732 -0.089548975 4410461
-3.6199572 -0.61845279 -0.089562014 4410461
-3.620666 -0.61557841 -0.089579538 4410461
-3.6215291 -0.61272889 -0.089600891 4410461
-3.6231732 -0.61000949 -0.089641571 4410461
-3.6250827 -0.60733181 -0.089688823 4410461
-3.6279387 -0.60480875 -0.089759454 4410461
-4.2078052 -0.69799626 -0.10410607 6052956
-4.2078166 -0.69451678 -0.10410634 6052956
-4.207828 -0.69103742 -0.10410661 6184542
-4.207839 -0.68755788 -0.1041069 6250335
-4.20785 -0.6840784 -0.10410717 6184542
-4.2078614 -0.68059891 -0.10410744 6316128
-4.2078724 -0.67711937 -0.10410771 6184542
-4.2078834 -0.67363977 -0.10410801 5987163
-4.2078948 -0.67016029 -0.10410827 5855577
-4.2079058 -0.66668063 -0.10410854 6118749
-4.2079167 -0.66320103 -0.10410878 6118749
-4.2079282 -0.65972143 -0.10410908 6052956
-4.2079391 -0.65624177 -0.10410938 5921370
-4.2079506 -0.65276217 -0.10410964 5921370
-4.2079616 -0.64928246 -0.10410994 5855577
-4.2079725 -0.64580274 -0.10411021 6052956
-4.207984 -0.64232308 -0.10411048 6184542
-4.2079954 -0.6388433 -0.10411075 6184542
-4.2080064 -0.63536358 -0.10411105 6184542
-4.2080178 -0.6318838 -0.10411131 6184542
-4.2080288 -0.62840402 -0.10411158 6184542
-4.2080398 -0.62492424 -0.10411185 6184542
-4.2080507 -0.6214444 -0.10411212 6184542
-4.2080617 -0.61796451 -0.10411239 6118749
-4.2080727 -0.61448467 -0.10411265 6052956
-4.2080841 -0.61100483 -0.10411298 6052956
-4.2080956 -0.60752487 -0.10411325 6118749
-4.2081065 -0.60404497 -0.10411352 6250335
-4.208118 -0.60056508 -0.10411379 6184542
-4.2081289 -0.59708506 -0.10411409 6118749
-4.2081399 -0.5936051 -0.10411435 6118749
-4.2081513 -0.59012514 -0.10411462 6184542
-4.2081623 -0.58664513 -0.10411486 6052956
-4.2081728 -0.58316505 -0.10411516 5921370
-4.2081847 -0.57968503 -0.10411543 5987163
-4.2081957 -0.57620496 -0.10411569 6118749
-4.2082067 -0.57272488 -0.10411596 6052956
-4.2082181 -0.5692448 -0.10411629 5921370
-4.2082291 -0.56576467 -0.10411656 5855577
-4.20824 -0.56228447 -0.10411683 5921370
-4.2082515 -0.55880439 -0.10411713 6250335
-4.2082624 -0.5553242 -0.10411739 6250335
-4.2082734 -0.55184394 -0.10411763 6184542
-4.2082853 -0.5483638 -0.1041179 5987163
-4.2082963 -0.54488355 -0.1041182 6118749
-4.2083073 -0.54140335 -0.10411847 6118749
-4.2083182 -0.53792304 -0.10411873 6184542
-4.2083292 -0.53444272 -0.104119 6184542
-4.2083406 -0.53096247 -0.1041193 6316128
-4.2083516 -0.52748209 -0.10411957 6250335
-4.2083626 -0.52400178 -0.10411987 6184542
-4.2083745 -0.52052146 -0.10412017 6184542
-4.2083855 -0.51704103 -0.10412043 6184542
-4.2083964 -0.51356059 -0.10412067 6250335
-4.2084079 -0.51008022 -0.10412094 6184542
-4.2084188 -0.50659978 -0.10412124 6052956
-4.2084298 -0.50311929 -0.10412151 5921370
-4.2084408 -0.49963889 -0.10412177 5855577
-4.2084517 -0.49615836 -0.10412204 5921370
-4.2084627 -0.49267784 -0.10412231 6118749
-4.2084742 -0.48919728 -0.10412261 6250335
-4.2084856 -0.48571679 -0.10412288 6316128
-4.2084966 -0.48223621 -0.10412318 6316128
-4.2085075 -0.47875559 -0.10412344 6250335
-4.208519 -0.47527504 -0.10412371 6184542
-4.2085299 -0.4717944 -0.10412398 6250335
-4.2085414 -0.46831381 -0.10412428 6184542
-4.2085524 -0.46483314 -0.10412455 6184542
-4.2085638 -0.46135244 -0.10412481 6250335
-4.2085748 -0.45787176 -0.10412508 6184542
-4.2085857 -0.45439106 -0.10412538 6184542
-4.2085972 -0.45091036 -0.10412565 6184542
-4.2086082 -0.4474296 -0.10412592 6250335
-4.2086191 -0.44394881 -0.10412619 6184542
-4.2086306 -0.44046804 -0.10412651 6052956
-4.2086415 -0.43698722 -0.10412675 6052956
-4.208653 -0.4335064 -0.10412702 6052956
-4.2086644 -0.43002558 -0.10412732 6052956
-4.2086754 -0.4265447 -0.10412759 6118749
-4.2086864 -0.42306381 -0.10412785 6052956
-4.2086973 -0.41958296 -0.10412812 6184542
-4.2087083 -0.41610202 -0.10412842 6316128
-4.2087193 -0.41262108 -0.10412869 6250335
-4.2087302 -0.40914011 -0.10412896 6250335
-4.2087417 -0.40565917 -0.10412923 6184542
-4.2087531 -0.40217817 -0.10412946 6184542
-4.2087641 -0.39869714 -0.10412976 6184542
-4.2087755 -0.39521614 -0.10413006 6250335
-4.2087865 -0.39173508 -0.10413033 6250335
-4.2087979 -0.38825405 -0.10413063 6118749
